-4.83400011 10.33199978 2.08299994 -1884.000000 176 143 112
-4.82399988 10.33699989 2.08200002 -1812.000000 152 108 102
-4.82800007 10.34399986 2.08800006 -1835.000000 161 133 130
-4.82299995 10.34799957 2.07500005 -1986.000000 123 81 78
-4.83400011 10.33600044 2.09100008 -1728.000000 177 152 128
-4.83099985 10.33600044 2.09299994 -1860.000000 181 162 154
-4.83199978 10.33699989 2.09100008 -1944.000000 177 152 128
-4.82900000 10.33699989 2.08899999 -1703.000000 172 151 143
-4.82700014 10.33899975 2.08899999 -1703.000000 161 133 130
-4.82800007 10.33399963 2.09999990 -1788.000000 192 183 187
-4.83500004 10.33699989 2.09699988 -1643.000000 184 167 166
-4.82700014 10.33899975 2.09899998 -1535.000000 188 190 196
-4.82399988 10.34099960 2.10100007 -1788.000000 188 193 201
-4.82399988 10.34099960 2.10400009 -1884.000000 188 193 201
-4.82399988 10.34899998 2.09400010 -2019.000000 157 123 121
-4.83300018 10.34000015 2.10700011 -1947.000000 188 166 164
-4.83500004 10.33800030 2.10999990 -1716.000000 188 166 164
-4.82999992 10.34000015 2.10800004 -1691.000000 191 184 187
-4.82800007 10.34300041 2.10899997 -1474.000000 190 193 202
-4.82700014 10.34099960 2.11100006 -1465.000000 191 194 202
-4.82499981 10.34200001 2.11100006 -1763.000000 191 194 202
-4.83199978 10.33899975 2.11299992 -1850.000000 186 165 161
-4.82900000 10.33899975 2.11400008 -1788.000000 192 186 188
-4.82499981 10.34200001 2.11400008 -1823.000000 191 194 202
-4.82900000 10.33800030 2.11700010 -1643.000000 190 187 188
-4.82900000 10.33899975 2.11999989 -1571.000000 190 187 188
-4.82700014 10.34099960 2.11700010 -1510.000000 192 195 202
-4.82499981 10.34099960 2.11700010 -1716.000000 192 195 202
-4.82700014 10.34099960 2.11999989 -1583.000000 192 194 202
-4.82100010 10.33800030 2.10700011 -2028.000000 189 196 203
-4.82299995 10.34399986 2.11199999 -2028.000000 191 195 203
-4.82200003 10.34300041 2.11500001 -1992.000000 191 195 203
-4.83199978 10.34000015 2.12800002 -1618.000000 190 167 164
-4.82900000 10.33899975 2.12299991 -1571.000000 190 187 188
-4.82600021 10.34000015 2.12299991 -1559.000000 192 194 202
-4.82399988 10.34300041 2.12299991 -1559.000000 192 194 202
-4.82900000 10.33800030 2.12599993 -1426.000000 191 186 187
-4.82600021 10.34000015 2.12599993 -1474.000000 189 195 201
-4.83500004 10.34000015 2.13199997 -1679.000000 190 165 162
-4.82900000 10.33800030 2.12899995 -1631.000000 192 185 186
-4.82600021 10.34000015 2.13199997 -1342.000000 189 195 201
-4.82399988 10.34000015 2.13100004 -1547.000000 189 195 201
-4.82700014 10.34099960 2.12899995 -1465.000000 189 195 201
-4.82399988 10.34000015 2.13400006 -1547.000000 190 194 201
-4.82900000 10.34200001 2.13599992 -1498.000000 193 182 185
-4.82100010 10.34000015 2.12899995 -2004.000000 188 194 205
-4.82200003 10.34200001 2.13299990 -2001.000000 188 194 205
-4.82100010 10.34099960 2.13499999 -2010.000000 189 193 206
-4.83500004 10.34200001 2.13899994 -1775.000000 190 163 159
-4.82700014 10.34399986 2.14000010 -1570.000000 190 194 201
-4.82600021 10.33899975 2.14299989 -1679.000000 190 193 200
-4.82399988 10.34300041 2.14400005 -1727.000000 190 193 200
-4.83300018 10.33600044 2.15199995 -1847.000000 186 165 157
-4.83099985 10.33600044 2.15100002 -1655.000000 188 186 187
-4.83199978 10.33899975 2.14599991 -1799.000000 187 184 186
-4.83199978 10.33899975 2.14899993 -1763.000000 188 186 187
-4.83300018 10.34200001 2.15199995 -2014.000000 132 103 78
-4.82800007 10.34000015 2.14800000 -1751.000000 187 184 186
-4.82399988 10.33899975 2.15199995 -1703.000000 189 194 200
-4.82200003 10.34300041 2.14199996 -2016.000000 191 193 204
-4.82000017 10.34099960 2.14800000 -2039.000000 124 103 93
-4.82499981 10.34500027 2.14199996 -1823.000000 191 192 201
-4.82200003 10.34799957 2.14700007 -1944.000000 191 195 203
-4.63700008 10.29800034 2.06399989 -1975.000000 171 164 166
-4.63199997 10.30300045 2.06299996 -1825.000000 189 190 198
-4.64400005 10.29800034 2.07200003 -1840.000000 178 164 147
-4.63500023 10.30399990 2.06699991 -1969.000000 177 177 184
-4.63700008 10.30099964 2.07999992 -1849.000000 152 117 105
-4.63600016 10.30500031 2.08200002 -2013.000000 140 107 107
-4.64400005 10.30000019 2.12400007 -2037.000000 184 183 185
-4.64200020 10.29699993 2.12599993 -2011.000000 183 183 185
-4.64300013 10.30300045 2.12700009 -1952.000000 183 177 168
-4.63899994 10.29899979 2.12299991 -1874.000000 185 176 171
-4.63299990 10.30099964 2.12199998 -2022.000000 189 197 203
-4.63600016 10.30000019 2.12800002 -1969.000000 186 192 198
-4.64200020 10.29899979 2.13000011 -1968.000000 185 181 185
-4.64099979 10.29800034 2.13599992 -1981.000000 186 180 183
-4.64300013 10.30200005 2.13299990 -1903.000000 183 177 168
-4.63999987 10.30599976 2.13199997 -1884.000000 186 192 198
-4.64400005 10.29699993 2.13700008 -2002.000000 186 180 183
-4.63899994 10.29899979 2.13899994 -1741.000000 184 177 165
-4.63800001 10.29699993 2.14299989 -1897.000000 189 190 199
-4.64400005 10.30200005 2.14800000 -1947.000000 184 179 182
-4.64300013 10.30399990 2.14499998 -1536.000000 186 180 183
-4.64499998 10.30300045 2.15199995 -1917.000000 182 176 178
-4.63199997 10.30399990 2.14800000 -1932.000000 189 197 203
-4.63100004 10.30399990 2.15100002 -1929.000000 190 196 204
-4.60900021 10.42099953 2.12199998 -1790.000000 211 208 205
-4.60400009 10.42399979 2.12599993 -1787.000000 182 190 200
-4.60900021 10.41899967 2.13100004 -1956.000000 158 134 122
-4.60900021 10.42099953 2.13499999 -1823.000000 158 127 102
-4.60400009 10.42199993 2.13100004 -1727.000000 141 120 131
-4.60400009 10.42199993 2.13299990 -1740.000000 214 212 213
-4.60099983 10.42300034 2.13499999 -1715.000000 136 101 101
-4.60900021 10.42399979 2.14000010 -1811.000000 158 127 102
-4.61199999 10.41899967 2.14199996 -1962.000000 163 127 97
-4.60699987 10.42399979 2.13700008 -1388.000000 147 111 96
-4.59999990 10.41499996 2.14899993 -2004.000000 111 100 99
-4.60900021 10.42000008 2.14899993 -1578.000000 206 206 204
-4.60900021 10.42099953 2.15100002 -1739.000000 169 133 107
-4.60699987 10.42099953 2.14800000 -1594.000000 158 114 96
-4.60400009 10.42399979 2.15000010 -1569.000000 150 103 99
-4.60699987 10.42300034 2.15199995 -1569.000000 160 118 103
-4.53599977 10.28699970 1.90100002 -1949.000000 191 174 170
-4.53299999 10.28800011 1.89800000 -1576.000000 172 145 128
-4.53399992 10.28600025 1.89900005 -1850.000000 180 158 139
-4.53000021 10.28800011 1.89699996 -1505.000000 207 203 201
-4.52799988 10.28699970 1.89900005 -1815.000000 163 130 115
-4.53399992 10.28600025 1.90199995 -1838.000000 180 158 139
-4.52899981 10.28600025 1.90100002 -1588.000000 173 148 129
-4.53000021 10.28800011 1.90100002 -1517.000000 175 148 130
-4.52400017 10.28400040 1.90300000 -1993.000000 160 127 112
-4.53100014 10.29100037 1.89800000 -1480.000000 172 145 128
-4.53000021 10.29100037 1.89999998 -1564.000000 173 148 129
-4.52500010 10.28899956 1.90199995 -1917.000000 173 147 133
-4.52299976 10.29100037 1.90199995 -2008.000000 162 127 114
-4.53100014 10.28299999 1.90799999 -1492.000000 166 144 122
-4.53299999 10.28499985 1.90499997 -1767.000000 179 161 139
-4.53000021 10.28699970 1.90799999 -1480.000000 166 144 122
-4.53200006 10.28100014 1.91199994 -1791.000000 179 157 137
-4.53100014 10.28299999 1.91100001 -1504.000000 164 138 120
-4.52899981 10.28699970 1.90999997 -1552.000000 166 144 122
-4.52699995 10.28600025 1.90699995 -1815.000000 155 122 107
-4.52500010 10.28600025 1.90799999 -1933.000000 155 122 107
-4.52400017 10.28400040 1.91199994 -1924.000000 170 145 127
-4.53000021 10.28899956 1.90600002 -1517.000000 173 144 125
-4.52899981 10.28899956 1.90499997 -1540.000000 171 148 127
-4.52799988 10.29100037 1.90600002 -1922.000000 160 127 112
-4.52500010 10.28999996 1.90699995 -1924.000000 170 145 127
-4.53200006 10.27900028 1.91400003 -1850.000000 179 157 137
-4.53299999 10.27900028 1.91700006 -1862.000000 178 156 135
-4.53599977 10.28899956 1.91799998 -1973.000000 192 177 169
-4.52899981 10.28199959 1.91400003 -1541.000000 164 138 120
-4.53100014 10.28499985 1.91499996 -1635.000000 164 138 120
-4.52899981 10.28600025 1.91799998 -1540.000000 165 136 120
-4.53000021 10.28699970 1.91700006 -1591.000000 175 154 133
-4.52500010 10.28499985 1.91299999 -1972.000000 152 118 105
-4.52699995 10.28600025 1.91600001 -1826.000000 152 118 105
-4.52400017 10.28600025 1.91799998 -1914.000000 175 154 133
-4.51999998 10.28800011 1.91999996 -1976.000000 168 156 139
-4.53499985 10.28999996 1.91299999 -1930.000000 192 175 170
-4.52799988 10.29500008 1.91999996 -1542.000000 207 204 199
-4.52699995 10.28899956 1.91400003 -1922.000000 152 118 105
-4.52299976 10.29500008 1.91499996 -1972.000000 151 110 101
-4.53299999 10.28199959 1.92400002 -1886.000000 181 161 138
-4.53100014 10.28800011 1.92100000 -1659.000000 165 136 120
-4.53299999 10.28499985 1.92799997 -1862.000000 180 157 136
-4.53000021 10.28699970 1.92499995 -1564.000000 167 137 120
-4.52799988 10.28699970 1.92499995 -1838.000000 151 113 103
-4.52899981 10.28800011 1.92799997 -1612.000000 166 138 121
-4.53200006 10.28899956 1.92799997 -1564.000000 166 138 121
-4.52500010 10.28999996 1.92299998 -1993.000000 151 113 103
-4.52500010 10.28999996 1.92400002 -1899.000000 175 154 133
-4.52299976 10.29599953 1.92100000 -1951.000000 147 106 99
-4.52500010 10.29199982 1.92700005 -1921.000000 151 113 103
-4.53700018 10.28400040 1.93900001 -1995.000000 189 178 167
-4.53000021 10.28800011 1.92999995 -1604.000000 207 204 203
-4.53000021 10.28800011 1.93599999 -1604.000000 209 206 204
-4.52199984 10.28699970 1.92900002 -1880.000000 149 107 96
-4.53499985 10.29199982 1.92999995 -2001.000000 190 178 168
-4.53100014 10.29199982 1.92900002 -1591.000000 176 153 132
-4.53000021 10.28999996 1.93200004 -1468.000000 167 139 125
-4.53200006 10.28899956 1.93599999 -1492.000000 169 142 127
-4.52899981 10.28899956 1.93400002 -1349.000000 167 139 125
-4.52500010 10.28899956 1.92900002 -1905.000000 176 153 132
-4.52299976 10.29300022 1.93400002 -1954.000000 149 107 96
-4.53000021 10.28800011 1.93900001 -1529.000000 172 149 132
-4.53399992 10.28800011 1.94400001 -1894.000000 182 161 145
-4.53000021 10.28699970 1.94099998 -1492.000000 209 206 204
-4.53100014 10.28800011 1.94200003 -1504.000000 169 146 127
-4.52899981 10.28800011 1.94200003 -1492.000000 169 146 127
-4.52899981 10.28600025 1.94400001 -1491.000000 172 149 132
-4.52699995 10.28800011 1.94000006 -1922.000000 151 117 105
-4.52400017 10.28699970 1.94200003 -1948.000000 151 117 105
-4.52099991 10.28699970 1.94400001 -2002.000000 150 104 97
-4.53499985 10.29300022 1.94299996 -1885.000000 182 161 145
-4.52500010 10.28899956 1.94000006 -1963.000000 151 117 105
-4.52500010 10.29100037 1.94000006 -1880.000000 172 149 132
-4.52600002 10.29599953 1.93700004 -1906.000000 151 114 103
-4.52299976 10.29500008 1.93799996 -1939.000000 149 106 97
-4.52299976 10.29399967 1.94299996 -1939.000000 150 105 97
-4.53599977 10.28699970 1.95700002 -2044.000000 178 159 138
-4.53299999 10.28699970 1.94599998 -1885.000000 178 158 141
-4.53100014 10.28800011 1.94500005 -1516.000000 167 142 124
-4.53299999 10.28600025 1.94900000 -1862.000000 178 158 141
-4.52500010 10.28800011 1.94599998 -1966.000000 150 114 102
-4.52099991 10.28800011 1.94700003 -1900.000000 150 104 97
-4.53200006 10.28999996 1.94799995 -1361.000000 167 142 124
-4.53000021 10.28999996 1.94900000 -1312.000000 167 142 124
-4.52899981 10.28899956 1.95200002 -1540.000000 164 135 121
-4.52799988 10.28999996 1.95200002 -1850.000000 149 111 102
-4.53000021 10.29199982 1.95099998 -1616.000000 168 147 133
-4.52500010 10.28999996 1.95000005 -1984.000000 149 111 102
-4.52500010 10.29100037 1.95200002 -1924.000000 168 147 133
-4.52899981 10.28800011 1.95700002 -1540.000000 164 137 121
-4.52799988 10.28600025 1.95899999 -1444.000000 167 138 121
-4.52600002 10.28699970 1.95599997 -1910.000000 148 111 103
-4.52099991 10.28800011 1.95599997 -1888.000000 149 103 99
-4.53200006 10.29199982 1.95500004 -1492.000000 164 135 121
-4.53000021 10.28999996 1.95500004 -1611.000000 164 137 121
-4.53000021 10.28999996 1.95599997 -1566.000000 169 149 136
-4.53399992 10.28899956 1.95799994 -1850.000000 178 159 138
-4.52500010 10.29100037 1.95299995 -1948.000000 149 111 102
-4.52500010 10.29100037 1.95599997 -1990.000000 148 111 103
-4.53599977 10.28600025 1.96200001 -1855.000000 192 179 168
-4.52899981 10.28600025 1.96099997 -1753.000000 169 149 136
-4.53000021 10.28499985 1.96300006 -1616.000000 210 206 201
-4.53399992 10.28800011 1.96700001 -1880.000000 170 139 123
-4.52899981 10.28800011 1.96599996 -1503.000000 170 139 123
-4.53000021 10.28600025 1.96700001 -1433.000000 171 142 123
-4.52600002 10.28299999 1.96099997 -1913.000000 154 111 103
-4.52600002 10.28100014 1.96300006 -1904.000000 154 111 103
-4.52099991 10.28600025 1.96399999 -1957.000000 152 106 101
-4.52600002 10.28600025 1.96800005 -1894.000000 155 114 102
-4.53299999 10.28899956 1.96200001 -1873.000000 181 161 139
-4.52899981 10.28899956 1.96300006 -1503.000000 170 139 123
-4.53200006 10.28899956 1.96500003 -1420.000000 170 139 123
-4.53399992 10.29199982 1.96599996 -1838.000000 170 139 123
-4.52699995 10.28999996 1.96099997 -1862.000000 151 112 103
-4.52199984 10.29100037 1.96300006 -1912.000000 152 106 101
-4.52899981 10.28699970 1.97399998 -1591.000000 207 208 198
-4.52899981 10.28800011 1.97500002 -1575.000000 156 117 102
-4.52600002 10.28600025 1.97099996 -1948.000000 156 117 102
-4.52099991 10.28699970 1.97000003 -1918.000000 154 106 100
-4.52899981 10.28999996 1.97000003 -1635.000000 171 142 123
-4.53499985 10.28899956 1.97300005 -1998.000000 193 178 168
-4.53100014 10.28999996 1.97500002 -1444.000000 172 144 123
-4.53599977 10.28400040 1.98899996 -1927.000000 191 177 162
-4.53100014 10.28800011 1.97700000 -1420.000000 172 144 124
-4.52899981 10.28699970 1.97700000 -1659.000000 156 116 104
-4.53499985 10.28899956 1.97899997 -1992.000000 193 179 166
-4.52899981 10.28899956 1.98099995 -1719.000000 156 116 104
-4.53100014 10.28999996 1.98399997 -1456.000000 168 139 122
-4.52799988 10.29399967 1.98099995 -1567.000000 207 208 198
-4.52500010 10.29300022 1.98300004 -1963.000000 153 107 100
-4.52199984 10.29399967 1.98199999 -1885.000000 153 107 99
-4.53000021 10.28600025 1.98500001 -1616.000000 210 209 200
-4.53200006 10.29100037 1.98699999 -1515.000000 168 139 122
-4.52899981 10.29199982 1.99100006 -1575.000000 153 112 103
-4.52899981 10.29300022 1.98899996 -1587.000000 153 112 103
-4.52699995 10.28999996 1.98699999 -1743.000000 153 112 103
-4.52199984 10.29300022 1.98699999 -1927.000000 153 107 102
-4.53499985 10.28600025 2.00000000 -1903.000000 191 174 162
-4.53000021 10.28800011 1.99699998 -1408.000000 171 141 123
-4.52899981 10.28699970 1.99800003 -1575.000000 155 118 105
-4.52799988 10.28600025 2.00000000 -1623.000000 156 119 106
-4.52699995 10.28800011 1.99800003 -1934.000000 155 118 105
-4.53299999 10.28999996 1.99399996 -1873.000000 169 139 121
-4.52899981 10.28999996 1.99600005 -1622.000000 155 118 105
-4.53499985 10.29500008 1.99300003 -1837.000000 167 137 120
-4.52400017 10.29199982 1.99399996 -1957.000000 153 108 103
-4.52699995 10.29100037 1.99600005 -1849.000000 155 118 105
-4.52199984 10.29599953 1.99399996 -2001.000000 210 209 200
-4.52099991 10.28899956 2.00000000 -1948.000000 154 111 104
-4.52099991 10.29300022 1.99800003 -1915.000000 153 110 102
-4.52299976 10.29500008 2.00000000 -1995.000000 212 208 202
-4.53299999 10.28699970 2.00200009 -1742.000000 172 142 124
-4.53100014 10.28699970 2.00300002 -1444.000000 172 142 124
-4.53399992 10.28199959 2.00500011 -2038.000000 183 161 142
-4.53499985 10.28499985 2.00600004 -1824.000000 190 172 163
-4.53000021 10.28699970 2.00600004 -1551.000000 172 143 125
-4.52899981 10.28600025 2.00699997 -1616.000000 214 206 202
-4.52600002 10.28800011 2.00399995 -1838.000000 157 120 107
-4.53299999 10.29199982 2.00600004 -1718.000000 172 143 125
-4.52099991 10.28899956 2.00600004 -1921.000000 156 113 107
-4.52299976 10.29300022 2.00500011 -2001.000000 214 206 202
-4.52199984 10.29399967 2.00500011 -1981.000000 156 113 107
-4.53499985 10.28600025 2.00999999 -2014.000000 183 161 139
-4.53000021 10.28800011 2.00900006 -1623.000000 173 145 126
-4.53299999 10.28600025 2.01300001 -1599.000000 175 147 128
-4.53499985 10.28800011 2.01399994 -2032.000000 183 161 139
-4.52799988 10.28800011 2.01300001 -1360.000000 160 124 112
-4.52799988 10.28699970 2.01500010 -1515.000000 160 124 112
-4.52600002 10.28800011 2.00999999 -1826.000000 159 122 110
-4.52899981 10.29500008 2.00999999 -1562.000000 157 120 107
-4.53100014 10.29100037 2.01600003 -1551.000000 175 147 128
-4.52400017 10.29100037 2.01099992 -1814.000000 158 114 109
-4.52099991 10.28899956 2.01200008 -1948.000000 158 114 109
-4.52600002 10.28899956 2.01600003 -1861.000000 160 124 112
-4.52099991 10.29199982 2.01600003 -1948.000000 157 113 109
-4.53000021 10.28400040 2.01799989 -1629.000000 213 207 203
-4.53299999 10.28800011 2.01699996 -1766.000000 175 147 128
-4.53299999 10.28800011 2.01999998 -1802.000000 174 147 129
-4.53299999 10.28800011 2.02300000 -1873.000000 171 143 124
-4.52299976 10.28699970 2.01799989 -1969.000000 158 112 107
-4.52600002 10.28699970 2.02099991 -1742.000000 158 120 108
-4.52299976 10.28699970 2.02099991 -1924.000000 159 111 107
-4.52899981 10.28899956 2.02200007 -1455.000000 160 123 112
-4.53100014 10.29100037 2.02200007 -1730.000000 174 147 129
-4.52400017 10.29100037 2.01699996 -1927.000000 157 113 109
-4.50600004 10.39799976 1.89800000 -1813.000000 176 163 161
-4.50600004 10.40100002 1.89699996 -1825.000000 177 164 160
-4.50600004 10.39999962 1.90499997 -1753.000000 179 162 157
-4.50600004 10.39999962 1.90799999 -1849.000000 180 162 158
-4.50600004 10.40100002 1.91199994 -1896.000000 180 162 158
-4.50199986 10.39799976 1.90100002 -1885.000000 188 182 188
-4.50000000 10.39999962 1.90400004 -1825.000000 186 184 186
-4.49900007 10.39900017 1.90100002 -1885.000000 188 182 188
-4.49900007 10.40100002 1.89900005 -1729.000000 188 182 188
-4.49499989 10.40400028 1.90400004 -1561.000000 191 195 201
-4.50000000 10.39999962 1.90999997 -1885.000000 189 187 190
-4.50299978 10.40200043 1.90499997 -1801.000000 186 184 186
-4.49700022 10.40400028 1.90499997 -1753.000000 191 195 201
-4.50299978 10.40200043 1.91100001 -1849.000000 189 187 190
-4.49499989 10.40299988 1.90900004 -1645.000000 192 196 202
-4.49300003 10.40299988 1.90999997 -1989.000000 193 198 206
-4.50500011 10.39999962 1.91400003 -1741.000000 180 162 158
-4.50500011 10.40200043 1.92600000 -1825.000000 181 166 161
-4.50199986 10.39799976 1.91499996 -1873.000000 189 188 188
-4.49900007 10.40100002 1.91299999 -1884.000000 190 187 192
-4.49700022 10.40299988 1.91600001 -1693.000000 194 195 204
-4.49300003 10.40200043 1.91299999 -2037.000000 193 197 206
-4.49499989 10.40400028 1.91799998 -1729.000000 191 196 201
-4.49300003 10.40699959 1.91799998 -1995.000000 191 198 206
-4.50199986 10.39999962 1.92200005 -1849.000000 188 187 188
-4.49900007 10.39799976 1.92400002 -1741.000000 186 185 188
-4.49900007 10.39900017 1.92799997 -1849.000000 186 185 188
-4.49200010 10.39999962 1.92400002 -2017.000000 192 199 206
-4.49399996 10.39999962 1.92600000 -1657.000000 188 196 201
-4.49700022 10.40299988 1.92499995 -1669.000000 190 197 200
-4.49399996 10.40900040 1.92100000 -2016.000000 191 198 206
-4.50600004 10.40299988 1.93299997 -1753.000000 177 162 160
-4.50400019 10.40799999 1.93700004 -1917.000000 186 184 188
-4.50600004 10.40699959 1.94299996 -1704.000000 178 160 155
-4.50299978 10.40400028 1.92999995 -1905.000000 186 185 188
-4.49900007 10.40100002 1.93400002 -1705.000000 186 184 188
-4.49800014 10.40699959 1.93499994 -1609.000000 189 195 202
-4.49900007 10.39999962 1.93700004 -1864.000000 187 184 186
-4.49900007 10.40100002 1.94000006 -1837.000000 188 184 184
-4.49800014 10.40799999 1.93900001 -1729.000000 192 195 201
-4.50299978 10.40400028 1.94200003 -1909.000000 188 184 184
-4.50600004 10.39999962 1.94900000 -1669.000000 178 162 158
-4.50600004 10.40299988 1.95299995 -1818.000000 178 162 158
-4.50199986 10.40299988 1.94700003 -1921.000000 186 185 186
-4.50000000 10.40200043 1.95200002 -1729.000000 188 197 202
-4.49499989 10.40299988 1.95099998 -1729.000000 190 200 204
-4.49499989 10.40600014 1.94900000 -1632.000000 192 200 205
-4.49900007 10.40299988 1.95799994 -1656.000000 190 195 202
-4.49499989 10.40400028 1.95700002 -1692.000000 191 198 204
-4.49399996 10.40999985 1.94599998 -2016.000000 194 198 205
-4.49399996 10.41300011 1.94900000 -2037.000000 192 200 205
-4.50600004 10.40299988 1.96500003 -1837.000000 177 163 159
-4.49200010 10.39999962 1.96200001 -2040.000000 191 197 206
-4.49900007 10.40100002 1.96399999 -1741.000000 189 194 202
-4.49700022 10.40600014 1.96700001 -1573.000000 189 194 202
-4.49300003 10.40699959 1.96800005 -2044.000000 191 197 206
-4.49900007 10.40299988 1.97000003 -1704.000000 190 194 201
-4.49900007 10.40100002 1.97300005 -1729.000000 191 193 201
-4.49900007 10.40299988 1.97599995 -1789.000000 191 193 201
-4.49399996 10.40400028 1.97099996 -1525.000000 191 197 206
-4.49499989 10.40600014 1.96899998 -1500.000000 191 197 206
-4.49300003 10.40999985 1.97500002 -2040.000000 191 197 205
-4.50600004 10.40499973 1.97800004 -1741.000000 179 159 154
-4.50600004 10.40499973 1.98099995 -1860.000000 178 158 150
-4.50500011 10.40400028 1.98899996 -1860.000000 177 159 149
-4.49700022 10.40699959 1.98000002 -1680.000000 191 193 201
-4.49800014 10.40200043 1.98199999 -1837.000000 191 195 202
-4.50199986 10.40499973 1.98300004 -1872.000000 187 183 186
-4.49399996 10.40499973 1.97800004 -1692.000000 192 197 205
-4.49300003 10.40499973 1.97899997 -2016.000000 192 197 205
-4.49900007 10.40299988 1.98500001 -1765.000000 191 195 202
-4.50199986 10.40499973 1.98599994 -1860.000000 187 183 186
-4.49700022 10.40600014 1.98500001 -1632.000000 191 195 202
-4.49700022 10.40600014 1.98800004 -1644.000000 190 196 202
-4.50199986 10.40400028 1.99199998 -1909.000000 187 186 188
-4.49800014 10.40200043 1.99100006 -1765.000000 190 196 201
-4.49700022 10.40600014 1.99100006 -1644.000000 190 196 202
-4.50600004 10.40600014 1.99300003 -1753.000000 177 159 149
-4.49900007 10.40299988 1.99399996 -1560.000000 190 196 201
-4.49599981 10.40299988 1.99600005 -1680.000000 190 196 200
-4.49700022 10.40699959 1.99399996 -1596.000000 190 196 201
-4.49399996 10.40400028 1.99500000 -1717.000000 189 200 204
-4.49200010 10.40499973 1.99699998 -2010.000000 189 200 204
-4.49900007 10.40299988 2.00300002 -1692.000000 190 196 200
-4.49700022 10.40799999 2.00399995 -1656.000000 190 196 200
-4.49599981 10.40400028 2.00799990 -1608.000000 190 195 199
-4.49900007 10.40499973 2.00699997 -1788.000000 190 195 199
-4.49499989 10.40600014 2.00200009 -1704.000000 189 200 203
-4.50699997 10.40999985 1.99800003 -1680.000000 181 160 154
-4.50500011 10.40299988 2.01300001 -1704.000000 189 168 155
-4.49599981 10.40200043 2.00999999 -1729.000000 190 195 199
-4.49399996 10.40400028 2.01300001 -1548.000000 190 197 204
-4.49399996 10.40400028 2.01600003 -1680.000000 191 198 205
-4.49200010 10.40699959 2.01600003 -2037.000000 191 198 205
-4.49800014 10.39799976 2.01900005 -1704.000000 194 195 201
-4.50199986 10.40499973 2.01900005 -1909.000000 194 186 185
-4.49599981 10.40900040 2.02200007 -1691.000000 194 195 201
-4.53200006 10.28699970 2.02800012 -1885.000000 170 139 120
-4.53100014 10.29199982 2.02500010 -1682.000000 171 143 124
-4.52899981 10.28899956 2.02800012 -1551.000000 158 118 107
-4.52799988 10.29100037 2.02999997 -1666.000000 212 208 204
-4.52099991 10.28899956 2.03200006 -1933.000000 158 113 107
-4.53000021 10.28400040 2.03399992 -1755.000000 170 139 120
-4.53100014 10.28299999 2.03500009 -1910.000000 171 140 121
-4.53200006 10.28699970 2.03399992 -1861.000000 170 139 120
-4.52799988 10.28800011 2.03600001 -1503.000000 159 117 106
-4.52799988 10.28499985 2.03800011 -1479.000000 159 117 106
-4.52199984 10.28299999 2.03999996 -1987.000000 160 112 105
-4.52899981 10.28899956 2.03399992 -1503.000000 158 118 106
-4.53000021 10.29100037 2.03399992 -1622.000000 170 139 120
-4.52799988 10.29100037 2.03600001 -1591.000000 212 209 202
-4.52400017 10.29399967 2.03600001 -1966.000000 158 113 107
-4.52600002 10.28999996 2.03699994 -1873.000000 159 117 106
-4.52600002 10.29100037 2.03999996 -1813.000000 159 117 106
-4.52099991 10.29399967 2.03999996 -1945.000000 158 112 105
-4.53399992 10.28199959 2.04299998 -2017.000000 183 162 136
-4.52699995 10.28400040 2.04099989 -1634.000000 159 118 105
-4.52199984 10.28299999 2.04299998 -1975.000000 159 111 106
-4.52500010 10.28600025 2.04099989 -1864.000000 159 118 105
-4.53000021 10.28999996 2.04800010 -1646.000000 171 143 122
-4.52600002 10.29599953 2.04200006 -1629.000000 212 209 202
-4.53200006 10.28699970 2.05200005 -1813.000000 174 146 124
-4.53000021 10.28800011 2.04999995 -1622.000000 174 146 124
-4.53200006 10.28400040 2.05299997 -1838.000000 174 145 122
-4.53000021 10.28699970 2.05599999 -1718.000000 174 145 122
-4.52299976 10.28699970 2.05399990 -1966.000000 162 116 109
-4.53000021 10.29100037 2.05399990 -1705.000000 174 146 124
-4.52299976 10.28999996 2.05200005 -1978.000000 160 113 107
-4.52699995 10.29300022 2.05299997 -1542.000000 211 206 197
-4.52500010 10.28400040 2.05800009 -1936.000000 161 124 110
-4.52600002 10.28499985 2.06399989 -1419.000000 158 119 106
-4.53299999 10.29199982 2.05699992 -1827.000000 184 170 149
-4.52699995 10.29500008 2.05699992 -1921.000000 162 123 109
-4.53200006 10.28800011 2.06699991 -1837.000000 169 141 121
-4.52799988 10.28699970 2.06800008 -1431.000000 157 116 104
-4.53000021 10.28999996 2.07200003 -1837.000000 169 141 120
-4.52699995 10.28899956 2.07200003 -1622.000000 157 116 104
-4.53200006 10.28800011 2.07299995 -1885.000000 170 138 120
-4.52799988 10.28699970 2.07399988 -1741.000000 210 204 194
-4.53100014 10.28600025 2.07800007 -1826.000000 173 142 125
-4.52799988 10.28999996 2.07800007 -1575.000000 160 117 106
-4.53100014 10.29599953 2.07699990 -1765.000000 170 138 120
-4.52799988 10.29599953 2.07800007 -1526.000000 159 115 104
-4.53100014 10.29399967 2.07900000 -1825.000000 170 138 120
-4.52400017 10.29599953 2.07800007 -1957.000000 164 113 108
-4.53499985 10.28400040 2.08299994 -1877.000000 185 168 159
-4.52899981 10.28499985 2.08400011 -1591.000000 209 203 193
-4.52899981 10.29100037 2.08500004 -1227.000000 161 119 105
-4.52799988 10.29199982 2.08800006 -1382.000000 165 122 109
-4.53000021 10.29300022 2.08800006 -1669.000000 172 141 123
-4.52600002 10.29599953 2.08100009 -1951.000000 160 117 106
-4.52600002 10.29399967 2.08299994 -1897.000000 160 117 106
-4.52600002 10.29300022 2.08500004 -1855.000000 161 119 105
-4.52899981 10.28400040 2.08999991 -1554.000000 209 203 193
-4.53200006 10.28699970 2.09599996 -1802.000000 174 143 126
-4.53100014 10.28600025 2.09299994 -1742.000000 176 145 122
-4.52799988 10.29300022 2.09100008 -1346.000000 165 122 109
-4.53000021 10.28899956 2.09500003 -1670.000000 176 145 122
-4.52500010 10.29199982 2.09100008 -1910.000000 165 122 109
-4.52699995 10.29500008 2.08899999 -1936.000000 165 122 109
-4.52400017 10.29599953 2.08999991 -1975.000000 167 117 113
-4.52500010 10.29199982 2.09400010 -1888.000000 165 122 108
-4.52500010 10.28999996 2.09599996 -1921.000000 162 121 110
-4.52400017 10.29500008 2.09500003 -1936.000000 167 120 114
-4.53399992 10.28699970 2.10100007 -1993.000000 183 157 136
-4.52699995 10.28899956 2.10100007 -1311.000000 164 125 114
-4.52299976 10.29199982 2.10299993 -1837.000000 168 129 121
-4.52600002 10.29300022 2.10299993 -1801.000000 164 125 114
-4.53499985 10.28199959 2.10500002 -1803.000000 188 168 157
-4.53100014 10.28600025 2.10700011 -1849.000000 175 153 141
-4.52899981 10.28800011 2.11199999 -1705.000000 186 173 167
-4.52899981 10.29100037 2.10500002 -1657.000000 173 141 123
-4.53000021 10.29199982 2.10800004 -1693.000000 175 153 141
-4.52799988 10.29199982 2.10899997 -1611.000000 168 142 138
-4.52600002 10.29300022 2.10599995 -1897.000000 168 142 138
-4.52400017 10.29300022 2.10700011 -1897.000000 172 142 139
-4.52699995 10.29100037 2.11100006 -1262.000000 182 175 174
-4.52500010 10.29199982 2.11199999 -1813.000000 182 175 174
-4.51999998 10.29100037 2.10999990 -2041.000000 185 172 171
-4.52600002 10.29300022 2.10899997 -1873.000000 168 142 138
-4.53100014 10.28600025 2.11400008 -1861.000000 192 183 179
-4.52600002 10.28699970 2.11599994 -1469.000000 191 189 192
-4.52500010 10.28800011 2.11599994 -1861.000000 191 189 192
-4.52699995 10.28600025 2.11800003 -1323.000000 189 189 195
-4.52500010 10.28800011 2.11899996 -1813.000000 189 189 195
-4.52199984 10.28800011 2.11899996 -1918.000000 189 194 201
-4.53200006 10.29199982 2.11299992 -1789.000000 186 173 167
-4.53000021 10.29500008 2.11899996 -1729.000000 192 183 179
-4.52699995 10.28999996 2.11400008 -1501.000000 191 189 192
-4.53399992 10.28299999 2.12199998 -1852.000000 188 167 150
-4.52899981 10.28199959 2.12299991 -1554.000000 208 202 193
-4.53399992 10.28299999 2.12700009 -1815.000000 188 167 150
-4.53399992 10.28800011 2.12800002 -2023.000000 115 102 92
-4.53399992 10.29100037 2.12100005 -1999.000000 186 166 154
-4.53200006 10.29300022 2.12299991 -1885.000000 189 179 178
-4.53399992 10.28999996 2.12700009 -1936.000000 188 167 154
-4.53000021 10.29300022 2.12599993 -1777.000000 190 181 179
-4.52799988 10.29399967 2.12800002 -1419.000000 189 191 196
-4.52400017 10.29199982 2.12299991 -2020.000000 111 98 90
-4.52500010 10.28999996 2.12599993 -1765.000000 189 191 196
-4.52500010 10.28899956 2.12800002 -1718.000000 185 191 196
-4.51999998 10.29199982 2.12500000 -2040.000000 189 195 204
-4.52299976 10.29300022 2.12800002 -1849.000000 189 195 202
-4.53200006 10.28199959 2.13299990 -2014.000000 133 120 110
-4.52799988 10.28299999 2.13400006 -1616.000000 206 201 192
-4.53000021 10.29199982 2.12899995 -1742.000000 183 178 176
-4.52699995 10.28999996 2.12899995 -1322.000000 185 191 196
-4.52699995 10.28999996 2.13199997 -1227.000000 185 191 196
-4.52400017 10.29300022 2.12899995 -1992.000000 111 98 90
-4.52299976 10.29300022 2.13100004 -1861.000000 189 195 202
-4.52699995 10.29100037 2.13499999 -1226.000000 187 193 195
-4.52500010 10.29300022 2.13299990 -1837.000000 187 193 195
-4.52500010 10.29599953 2.13499999 -1942.000000 133 122 114
-4.52299976 10.29399967 2.13400006 -1885.000000 189 195 202
-4.52299976 10.29300022 2.13599992 -1789.000000 189 195 202
-4.53399992 10.28299999 2.13800001 -1766.000000 187 165 148
-4.52799988 10.28299999 2.14000010 -1505.000000 204 202 193
-4.53399992 10.28400040 2.14400005 -1827.000000 188 171 154
-4.52400017 10.28600025 2.14199996 -1550.000000 189 193 203
-4.53200006 10.29199982 2.13700008 -1681.000000 186 180 175
-4.53200006 10.29100037 2.13899994 -1813.000000 185 176 172
-4.52899981 10.29300022 2.13800001 -1430.000000 187 191 195
-4.52899981 10.29399967 2.13899994 -1703.000000 133 122 114
-4.53000021 10.29199982 2.14100003 -1441.000000 187 191 195
-4.52899981 10.28999996 2.14299989 -1406.000000 188 189 197
-4.52799988 10.28999996 2.14400005 -1678.000000 153 143 133
-4.53499985 10.29599953 2.14100003 -1909.000000 182 157 144
-4.53499985 10.29300022 2.14299989 -1912.000000 182 157 144
-4.53200006 10.29300022 2.14299989 -1861.000000 186 176 177
-4.52500010 10.28999996 2.13800001 -1705.000000 189 194 202
-4.52400017 10.28899956 2.14000010 -1754.000000 189 193 203
-4.52400017 10.29300022 2.14000010 -1889.000000 133 122 114
-4.52699995 10.28999996 2.14400005 -1094.000000 188 189 197
-4.52199984 10.28899956 2.14400005 -1765.000000 189 193 203
-4.52799988 10.28299999 2.14499998 -1616.000000 204 202 193
-4.53399992 10.28199959 2.14899993 -1840.000000 196 186 173
-4.52799988 10.28400040 2.15100002 -1579.000000 207 206 200
-4.52799988 10.28800011 2.14899993 -1653.000000 153 143 133
-4.52500010 10.28800011 2.14599991 -1801.000000 187 192 202
-4.52199984 10.28800011 2.14599991 -1753.000000 187 192 202
-4.52699995 10.28800011 2.14899993 -1274.000000 188 187 197
-4.52600002 10.28499985 2.15100002 -1335.000000 188 185 196
-4.52899981 10.28899956 2.14599991 -1516.000000 188 187 197
-4.53100014 10.28999996 2.14800000 -1645.000000 187 175 177
-4.53399992 10.29300022 2.15199995 -1983.000000 187 175 177
-4.52400017 10.29199982 2.14499998 -1840.000000 153 143 133
-4.52400017 10.29300022 2.15100002 -1753.000000 153 143 133
-4.50500011 10.40499973 2.02900004 -1632.000000 189 163 153
-4.50400019 10.39999962 2.03500009 -1644.000000 192 173 157
-4.49700022 10.40799999 2.02500010 -1752.000000 194 195 201
-4.49399996 10.40600014 2.02600002 -1729.000000 192 198 204
-4.49399996 10.40699959 2.02900004 -1776.000000 193 198 203
-4.49800014 10.40400028 2.03299999 -1812.000000 193 196 202
-4.49800014 10.40400028 2.03600001 -1776.000000 193 195 201
-4.50199986 10.40600014 2.03399992 -1926.000000 190 188 191
-4.49599981 10.40600014 2.03600001 -1632.000000 193 195 201
-4.49300003 10.41399956 2.02699995 -2040.000000 192 198 204
-4.50400019 10.39999962 2.04099989 -1728.000000 191 171 158
-4.50400019 10.39999962 2.04399991 -1608.000000 188 168 157
-4.50099993 10.39999962 2.04699993 -1812.000000 192 185 186
-4.49399996 10.40299988 2.04200006 -1777.000000 191 199 204
-4.49399996 10.40699959 2.04699993 -1752.000000 191 199 204
-4.49800014 10.39999962 2.04900002 -1776.000000 193 194 201
-4.50199986 10.40400028 2.05399990 -1848.000000 192 182 183
-4.49800014 10.40200043 2.05299997 -1740.000000 192 194 199
-4.49399996 10.40699959 2.04999995 -1560.000000 192 196 206
-4.49700022 10.40999985 2.04399991 -1474.000000 192 196 200
-4.50500011 10.40499973 2.05800009 -1716.000000 185 164 146
-4.50400019 10.40400028 2.06100011 -1728.000000 185 164 146
-4.50099993 10.40499973 2.05800009 -1812.000000 193 179 183
-4.49599981 10.40499973 2.05699992 -1511.000000 192 194 199
-4.49399996 10.40699959 2.05900002 -1703.000000 190 197 204
-4.49399996 10.40600014 2.06200004 -1728.000000 190 198 207
-4.50000000 10.40100002 2.07100010 -1752.000000 193 185 187
-4.49800014 10.40400028 2.07200003 -1716.000000 193 193 202
-4.50099993 10.40499973 2.06900001 -1860.000000 192 184 187
-4.49399996 10.40699959 2.06500006 -1728.000000 190 198 207
-4.50099993 10.40200043 2.07399988 -1776.000000 193 185 187
-4.49800014 10.40499973 2.07500005 -1571.000000 193 193 202
-4.49599981 10.40699959 2.07500005 -1571.000000 193 193 202
-4.49700022 10.40100002 2.07699990 -1728.000000 193 194 200
-4.49399996 10.40600014 2.07999992 -1740.000000 190 197 204
-4.50000000 10.40299988 2.08100009 -1776.000000 192 183 185
-4.50099993 10.40400028 2.08400011 -1836.000000 192 183 185
-4.49800014 10.40299988 2.08100009 -1655.000000 190 194 199
-4.49800014 10.40299988 2.08699989 -1884.000000 191 193 199
-4.49300003 10.40699959 2.08299994 -1800.000000 190 197 204
-4.49700022 10.40299988 2.09299994 -1788.000000 193 192 199
-4.49800014 10.40200043 2.09500003 -1691.000000 194 191 199
-4.49300003 10.40499973 2.09100008 -1716.000000 191 196 205
-4.50299978 10.39999962 2.10400009 -1439.000000 194 184 182
-4.50000000 10.39999962 2.10400009 -1643.000000 194 184 182
-4.49599981 10.40799999 2.09699988 -1583.000000 192 195 204
-4.49800014 10.40200043 2.10100007 -1836.000000 195 192 199
-4.49399996 10.40499973 2.09699988 -1716.000000 192 195 204
-4.49300003 10.40600014 2.10100007 -1740.000000 195 196 204
-4.50299978 10.40200043 2.10800004 -1655.000000 194 184 185
-4.50000000 10.40200043 2.10999990 -1547.000000 194 184 185
-4.49700022 10.40100002 2.10999990 -1752.000000 195 194 201
-4.49499989 10.40600014 2.10500002 -1607.000000 194 196 204
-4.49499989 10.40600014 2.11100006 -1643.000000 193 197 204
-4.50099993 10.40400028 2.11400008 -1510.000000 193 184 186
-4.49399996 10.40499973 2.11599994 -1655.000000 192 197 205
-4.49300003 10.40299988 2.11800003 -1679.000000 191 196 205
-4.49700022 10.39999962 2.12800002 -1366.000000 191 193 198
-4.50000000 10.40499973 2.12400007 -1269.000000 189 183 180
-4.50299978 10.40299988 2.12599993 -1679.000000 189 183 180
-4.49700022 10.40299988 2.12599993 -1486.000000 191 193 198
-4.49499989 10.40299988 2.12199998 -1474.000000 190 198 204
-4.49300003 10.40299988 2.12100005 -1800.000000 190 198 204
-4.49200010 10.40200043 2.12299991 -1691.000000 190 198 204
-4.49599981 10.39900017 2.13400006 -1619.000000 192 191 197
-4.50299978 10.40200043 2.12899995 -1619.000000 191 181 179
-4.50299978 10.40200043 2.13199997 -1523.000000 192 178 176
-4.49499989 10.40699959 2.13499999 -1558.000000 192 196 204
-4.49599981 10.39900017 2.13899994 -1416.000000 190 190 197
-4.49200010 10.39900017 2.14000010 -1836.000000 190 196 203
-4.49399996 10.40400028 2.14000010 -1474.000000 190 196 203
-4.49300003 10.40600014 2.13700008 -1763.000000 190 196 203
-4.49399996 10.40100002 2.14199996 -1571.000000 190 196 203
-4.49100018 10.40100002 2.14400005 -1716.000000 190 195 204
-4.50000000 10.40200043 2.15000010 -1486.000000 184 176 177
-4.49200010 10.40499973 2.14899993 -1510.000000 190 195 204
-4.05000019 10.21599960 1.64499998 -1971.000000 196 183 172
-4.03999996 10.21100044 1.64100003 -1974.000000 191 187 181
-4.04400015 10.22399998 1.64100003 -1935.000000 207 203 197
-4.04400015 10.22399998 1.64400005 -1923.000000 205 201 196
-4.04600000 10.22099972 1.64800000 -1950.000000 202 200 194
-4.04799986 10.22200012 1.65499997 -1926.000000 200 195 191
-4.05000019 10.21800041 1.65999997 -1921.000000 188 176 170
-4.05100012 10.22299957 1.65900004 -1965.000000 191 179 171
-4.04799986 10.22200012 1.66100001 -1829.000000 197 192 189
-4.04500008 10.22200012 1.66400003 -1912.000000 191 192 193
-4.05100012 10.22599983 1.65699995 -1965.000000 191 179 171
-4.04600000 10.22500038 1.65699995 -1900.000000 196 198 193
-4.05100012 10.22000027 1.66900003 -1783.000000 180 173 165
-4.04099989 10.22399998 1.66999996 -1936.000000 182 182 184
-4.04899979 10.22799969 1.66799998 -1900.000000 192 189 187
-4.04899979 10.22500038 1.66999996 -1876.000000 187 189 185
-4.04099989 10.22700024 1.66600001 -1900.000000 182 183 183
-4.04600000 10.22599983 1.67100000 -1888.000000 189 192 193
-4.04300022 10.22500038 1.66900003 -1876.000000 189 192 193
-4.04500008 10.22399998 1.67600000 -1829.000000 189 192 193
-4.04099989 10.22299957 1.67299998 -1829.000000 183 182 185
-4.03999996 10.21899986 1.67999995 -1947.000000 179 183 183
-4.04600000 10.22099972 1.67700005 -1711.000000 189 192 192
-4.04199982 10.22299957 1.67900002 -1864.000000 189 192 192
-4.04799986 10.22500038 1.67600000 -1900.000000 186 187 184
-4.05100012 10.21899986 1.68200004 -1959.000000 180 172 164
-4.04799986 10.22399998 1.68099999 -1805.000000 187 186 183
-4.04799986 10.22200012 1.68299997 -1864.000000 188 186 182
-4.04500008 10.22000027 1.68299997 -1558.000000 189 192 192
-4.04199982 10.21700001 1.68799996 -1915.000000 188 190 191
-4.04799986 10.22399998 1.68900001 -1605.000000 190 187 184
-4.04500008 10.22200012 1.69200003 -1888.000000 188 190 191
-4.03999996 10.21899986 1.69599998 -1979.000000 180 178 181
-4.04300022 10.22099972 1.69500005 -1888.000000 190 189 192
-4.05100012 10.22399998 1.70000005 -2003.000000 182 175 168
-4.04400015 10.21700001 1.70400000 -1947.000000 188 189 194
-4.03999996 10.21899986 1.70099998 -1950.000000 179 178 183
-4.04500008 10.22200012 1.70299995 -1947.000000 188 189 194
-4.04099989 10.22399998 1.70099998 -1959.000000 180 178 181
-4.04500008 10.22700024 1.70200002 -1973.000000 190 189 194
-4.04199982 10.22500038 1.70200002 -1941.000000 190 189 194
-4.05000019 10.21599960 1.71099997 -1950.000000 180 171 169
-4.03999996 10.21199989 1.71000004 -1997.000000 177 181 182
-4.04699993 10.21300030 1.71000004 -1888.000000 186 186 186
-4.05000019 10.21300030 1.71800005 -1997.000000 177 168 163
-4.04699993 10.21100044 1.72000003 -1900.000000 187 184 183
-4.04199982 10.21599960 1.71700001 -1876.000000 187 191 191
-4.03999996 10.21500015 1.71899998 -1979.000000 180 182 184
-4.04199982 10.21700001 1.71200001 -1864.000000 186 191 191
-4.04199982 10.22000027 1.71099997 -1852.000000 185 191 191
-4.04199982 10.22500038 1.70500004 -1938.000000 188 189 194
-4.04799986 10.22399998 1.71599996 -1929.000000 186 186 184
-4.05000019 10.21800041 1.71700001 -2009.000000 178 170 165
-4.03999996 10.21899986 1.71800005 -1991.000000 180 182 184
-4.04899979 10.21399975 1.72399998 -2021.000000 187 184 183
-4.05000019 10.21500015 1.73300004 -1924.000000 189 185 181
-4.04199982 10.22200012 1.72300005 -1852.000000 187 191 191
-4.04400015 10.21800041 1.72899997 -1829.000000 190 192 191
-4.04699993 10.22000027 1.72899997 -1924.000000 189 185 183
-4.04400015 10.21899986 1.73500001 -1965.000000 190 192 192
-4.04699993 10.22299957 1.73300004 -1899.000000 189 185 181
-4.05000019 10.22099972 1.73800004 -1858.000000 187 184 178
-4.04099989 10.22399998 1.73899996 -1988.000000 182 185 187
-4.04799986 10.22700024 1.74300003 -1924.000000 187 184 178
-4.04099989 10.22599983 1.74300003 -1964.000000 183 183 184
-4.05000019 10.22000027 1.74800003 -1965.000000 191 185 184
-4.04199982 10.22200012 1.74500000 -1900.000000 184 181 179
-4.04099989 10.22399998 1.74699998 -1973.000000 184 181 179
-4.04500008 10.22299957 1.75000000 -1794.000000 195 191 192
-4.04300022 10.22099972 1.75000000 -1806.000000 186 181 178
-4.04500008 10.22599983 1.74899995 -1782.000000 192 191 191
-4.04400015 10.21599960 1.76699996 -1962.000000 197 195 195
-4.05000019 10.22200012 1.75500000 -1947.000000 193 191 183
-4.05000019 10.22200012 1.75699997 -1962.000000 193 191 183
-4.04500008 10.22299957 1.75300002 -1876.000000 195 191 192
-4.04400015 10.22000027 1.75699997 -1894.000000 196 194 193
-4.04899979 10.21700001 1.76699996 -2021.000000 198 191 185
-4.04699993 10.22000027 1.76199996 -1932.000000 197 193 185
-4.04400015 10.22099972 1.76400006 -1864.000000 196 195 196
-4.04199982 10.22200012 1.76199996 -1976.000000 187 183 183
-4.04199982 10.22099972 1.76400006 -1941.000000 187 184 186
-4.04600000 10.21700001 1.76699996 -1967.000000 198 191 185
-3.87800002 10.18999958 1.64400005 -1753.000000 181 177 175
-3.87800002 10.19400024 1.64300001 -1830.000000 213 202 196
-3.87500000 10.19299984 1.64100003 -1772.000000 213 202 196
-3.87400007 10.19699955 1.64400005 -1830.000000 220 214 208
-3.87700009 10.19600010 1.64600003 -1900.000000 213 203 195
-3.87500000 10.19299984 1.64699996 -1818.000000 213 203 195
-3.86800003 10.19799995 1.64100003 -1959.000000 221 217 211
-3.87800002 10.19200039 1.64999998 -1766.000000 182 179 175
-3.87500000 10.18999958 1.65100002 -1830.000000 212 201 195
-3.87800002 10.19200039 1.65499997 -1766.000000 182 179 175
-3.87400007 10.18999958 1.65600002 -1911.000000 155 157 161
-3.87299991 10.19200039 1.65600002 -1889.000000 214 210 205
-3.86800003 10.19099998 1.65499997 -2012.000000 214 211 209
-3.87500000 10.19799995 1.65100002 -1677.000000 213 202 194
-3.87700009 10.19499969 1.65400004 -1900.000000 212 201 195
-3.87899995 10.19799995 1.65300000 -1888.000000 202 184 169
-3.87100005 10.19600010 1.64999998 -1877.000000 220 212 208
-3.86899996 10.19400024 1.65100002 -1839.000000 221 215 212
-3.87299991 10.18900013 1.65999997 -1889.000000 209 206 204
-3.87800002 10.19200039 1.66100001 -1753.000000 184 177 175
-3.86800003 10.19099998 1.65799999 -1927.000000 214 211 209
-3.86899996 10.18999958 1.65999997 -1974.000000 208 207 207
-3.87100005 10.19099998 1.65999997 -1830.000000 209 206 204
-3.87700009 10.19600010 1.65999997 -1818.000000 209 200 195
-3.87500000 10.19299984 1.65999997 -1795.000000 206 199 195
-3.87299991 10.19400024 1.65900004 -1865.000000 214 210 205
-3.87899995 10.19400024 1.66199994 -1939.000000 198 185 175
-3.87700009 10.19499969 1.66199994 -1888.000000 206 199 195
-3.87500000 10.19400024 1.66400003 -1795.000000 206 199 195
-3.87100005 10.19499969 1.66400003 -1868.000000 209 206 204
-3.87700009 10.18799973 1.66499996 -1689.000000 203 198 195
-3.87700009 10.18799973 1.66799998 -1856.000000 200 196 195
-3.87800002 10.18999958 1.66600001 -1716.000000 184 177 175
-3.87299991 10.18900013 1.66600001 -1921.000000 157 156 160
-3.87199998 10.18999958 1.66600001 -1830.000000 204 203 203
-3.87899995 10.18700027 1.66900003 -1953.000000 193 183 176
-3.87100005 10.18900013 1.66999996 -1795.000000 201 202 204
-3.87299991 10.19400024 1.66499996 -1888.000000 204 203 203
-3.86800003 10.19600010 1.66499996 -2000.000000 203 204 205
-3.86800003 10.19299984 1.66700006 -1918.000000 203 204 205
-3.86899996 10.19600010 1.67100000 -1950.000000 201 202 205
-3.87400007 10.18900013 1.67600000 -1618.000000 199 195 195
-3.87100005 10.19099998 1.67799997 -1853.000000 201 202 204
-3.86700010 10.18900013 1.67900002 -2012.000000 200 203 206
-3.87899995 10.19400024 1.67299998 -1980.000000 193 183 176
-3.87899995 10.19400024 1.67600000 -1927.000000 192 182 175
-3.87700009 10.19299984 1.67499995 -1700.000000 199 195 195
-3.87299991 10.19400024 1.67299998 -1877.000000 201 202 204
-3.87299991 10.19699955 1.67600000 -1641.000000 201 202 204
-3.86899996 10.19400024 1.67799997 -1959.000000 201 203 204
-3.87800002 10.18999958 1.68200004 -1778.000000 185 180 176
-3.87400007 10.18999958 1.68299997 -1949.000000 162 157 158
-3.87299991 10.18700027 1.68799996 -1924.000000 165 158 155
-3.87599993 10.19200039 1.68599999 -1850.000000 198 196 192
-3.87599993 10.18900013 1.68799996 -1924.000000 198 196 192
-3.87400007 10.18900013 1.68599999 -1862.000000 198 196 192
-3.87199998 10.18999958 1.68799996 -1913.000000 200 202 202
-3.87599993 10.19400024 1.68400002 -1771.000000 199 197 193
-3.87899995 10.19799995 1.68299997 -1941.000000 194 182 174
-3.87899995 10.19299984 1.68700004 -1947.000000 191 182 170
-3.87299991 10.19799995 1.68799996 -1879.000000 200 202 202
-3.87199998 10.18500042 1.69099998 -1897.000000 201 203 203
-3.87400007 10.18700027 1.69099998 -1783.000000 197 195 193
-3.87299991 10.18900013 1.69000006 -1924.000000 201 203 202
-3.87400007 10.18500042 1.69299996 -1958.000000 165 158 155
-3.86800003 10.18599987 1.69400001 -2024.000000 201 205 204
-3.87899995 10.19299984 1.69200003 -1924.000000 190 180 171
-3.87100005 10.19999981 1.69200003 -1944.000000 201 203 202
-3.86899996 10.19900036 1.69299996 -2009.000000 200 205 206
-3.86800003 10.19799995 1.69599998 -1965.000000 201 205 204
-3.87400007 10.18500042 1.69900000 -1973.000000 169 160 154
-3.87400007 10.18900013 1.69700003 -1913.000000 199 193 192
-3.87400007 10.19200039 1.70099998 -1888.000000 199 193 192
-3.86999989 10.18799973 1.69700003 -1947.000000 203 201 203
-3.87700009 10.19499969 1.69799995 -1888.000000 197 193 193
-3.87700009 10.19699955 1.70400000 -1818.000000 199 193 192
-3.87299991 10.19099998 1.70500004 -1842.000000 204 201 203
-3.87400007 10.18500042 1.71000004 -1977.000000 169 161 153
-3.87899995 10.18999958 1.71000004 -1897.000000 191 178 168
-3.87700009 10.18900013 1.71000004 -1778.000000 188 180 170
-3.87899995 10.19900036 1.70599997 -1912.000000 190 179 172
-3.87599993 10.19799995 1.70700002 -1912.000000 200 194 192
-3.87899995 10.19799995 1.71099997 -1906.000000 191 178 170
-3.87400007 10.19900036 1.70899999 -1782.000000 201 194 191
-3.86800003 10.19699955 1.71200001 -1965.000000 206 205 208
-3.87700009 10.18799973 1.71500003 -1828.000000 188 180 170
-3.87599993 10.19299984 1.71599996 -1913.000000 201 194 191
-3.87899995 10.19499969 1.71500003 -1924.000000 191 178 168
-3.87400007 10.19600010 1.71599996 -1924.000000 201 194 191
-3.87899995 10.19299984 1.72000003 -1906.000000 190 178 167
-3.87199998 10.19699955 1.71800005 -1948.000000 205 202 203
-3.87100005 10.19900036 1.71399999 -1759.000000 205 202 204
-3.87899995 10.18700027 1.72300005 -1968.000000 185 176 165
-3.87299991 10.18700027 1.72099996 -1936.000000 170 162 154
-3.87800002 10.18599987 1.72599995 -1766.000000 191 181 174
-3.87700009 10.19299984 1.72399998 -1795.000000 196 193 187
-3.87400007 10.19600010 1.72200000 -1794.000000 198 194 189
-3.87500000 10.19600010 1.72399998 -1818.000000 198 194 189
-3.87199998 10.19699955 1.72300005 -1888.000000 204 203 202
-3.87599993 10.19600010 1.72800004 -1629.000000 196 193 187
-3.87299991 10.19900036 1.72700000 -1912.000000 203 204 201
-3.86999989 10.19799995 1.72200000 -1818.000000 204 203 202
-3.87100005 10.19900036 1.72500002 -1868.000000 203 204 201
-3.86999989 10.19799995 1.72700000 -1974.000000 203 204 201
-3.87899995 10.18999958 1.73300004 -1994.000000 190 177 170
